ply
format ascii 1.0
element vertex 1227
property float x
property float y
property float z
property uchar red
property uchar green
property uchar blue
end_header
-0.311813 -0.611141 -3.037139 123 111 99
-0.311625 -0.602490 -3.035306 148 138 128
-0.315217 -0.601057 -3.070292 157 149 136
-0.320876 -0.603319 -3.125414 162 154 141
-0.319853 -0.592894 -3.115447 167 157 145
-0.320110 -0.584864 -3.117954 163 151 139
-0.319955 -0.576076 -3.116442 174 160 147
-0.328255 -0.564847 -3.197282 187 171 158
-0.331377 -0.561413 -3.227698 178 164 153
-0.330369 -0.550924 -3.217875 107 95 83
-0.330317 -0.542058 -3.217368 65 51 40
-0.329218 -0.531505 -3.206664 86 72 61
-0.328799 -0.522090 -3.202585 112 98 87
-0.327841 -0.511855 -3.193249 126 109 99
-0.327794 -0.503070 -3.192795 148 130 120
-0.327623 -0.494101 -3.191134 163 149 138
-0.329492 -0.488161 -3.209333 175 161 150
-0.329139 -0.478891 -3.205901 194 180 167
-0.327734 -0.468135 -3.192207 211 193 183
-0.326023 -0.457027 -3.175546 192 171 166
-0.325945 -0.448255 -3.174786 158 138 137
-0.327438 -0.441605 -3.189323 70 50 51
-0.329745 -0.435954 -3.211804 48 26 29
-0.331767 -0.429809 -3.231493 43 27 28
-0.332588 -0.422033 -3.239492 58 46 48
-0.332987 -0.413689 -3.243381 53 44 45
-0.332836 -0.404655 -3.241903 62 58 59
-0.332617 -0.395549 -3.239773 74 72 73
-0.333028 -0.387187 -3.243778 99 99 101
-0.333231 -0.378566 -3.245755 119 119 121
-0.334016 -0.370580 -3.253401 109 109 111
-0.333935 -0.361615 -3.252610 72 66 70
-0.334372 -0.353202 -3.256869 73 63 71
-0.334668 -0.344620 -3.259755 130 123 130
-0.335455 -0.336514 -3.267415 222 217 223
-0.335678 -0.327816 -3.269586 227 220 227
-0.335701 -0.318917 -3.269811 228 218 227
-0.335674 -0.309969 -3.269545 194 183 191
-0.335665 -0.301040 -3.269466 88 56 67
-0.335456 -0.291937 -3.267426 60 33 40
-0.336246 -0.283688 -3.275122 53 31 34
-0.337328 -0.275635 -3.285658 52 30 32
-0.338310 -0.267446 -3.295221 56 31 35
-0.338974 -0.258961 -3.301687 65 34 40
-0.339637 -0.250442 -3.308151 73 36 43
-0.339691 -0.241453 -3.308674 90 36 49
-0.339805 -0.232503 -3.309785 99 37 52
-0.339945 -0.223564 -3.311154 108 33 54
-0.340541 -0.214905 -3.316953 111 36 59
-0.340657 -0.205924 -3.318086 126 64 85
-0.341216 -0.197193 -3.323528 167 123 140
-0.341995 -0.188554 -3.331118 191 171 182
-0.343518 -0.180264 -3.345953 207 197 205
-0.345086 -0.171915 -3.361226 219 217 222
-0.458765 1.685746 -4.468482 181 190 189
-0.453609 1.678858 -4.418265 180 189 188
-0.449518 1.675662 -4.378414 178 187 184
-0.444246 1.667819 -4.327070 175 181 179
-0.441405 1.668883 -4.299394 168 177 174
-0.439353 1.672804 -4.279411 162 168 166
-0.436659 1.674150 -4.253165 164 170 170
-0.415964 1.627974 -4.051598 194 204 203
-0.384371 1.606485 -3.743874 209 219 220
-0.382155 1.607379 -3.722287 203 213 214
-0.381341 1.614089 -3.714355 198 206 208
-0.381600 1.625327 -3.716877 190 199 198
-0.381260 1.634013 -3.713568 185 194 193
-0.381136 1.643610 -3.712357 182 191 188
-0.380878 1.652622 -3.709847 184 190 188
-0.380681 1.661886 -3.707933 184 190 188
-0.379989 1.668961 -3.701185 183 192 191
-0.379159 1.675393 -3.693099 183 192 191
-0.378652 1.683219 -3.688169 183 192 191
-0.377280 1.687147 -3.674804 182 192 191
-0.374333 1.683916 -3.646097 182 192 191
-0.372185 1.684146 -3.625176 182 192 191
-0.371737 1.691997 -3.620807 183 192 191
-0.370936 1.698209 -3.613005 183 192 191
-0.368386 1.696327 -3.588170 181 190 189
-0.366133 1.695684 -3.566226 184 193 192
-0.363457 1.692952 -3.540164 182 191 190
-0.361078 1.691468 -3.516993 184 193 192
-0.357381 1.683646 -3.480980 182 191 190
-0.355415 1.683831 -3.461832 182 191 190
-0.353599 1.684622 -3.444138 182 192 191
-0.352260 1.687607 -3.431098 182 193 189
-0.350529 1.688629 -3.414237 181 192 188
-0.349173 1.691380 -3.401034 180 190 189
-0.347265 1.691365 -3.382445 182 192 191
-0.345973 1.694271 -3.369868 183 193 194
-0.344006 1.693778 -3.350702 182 191 190
-0.341954 1.692762 -3.330714 184 193 192
-0.340111 1.692682 -3.312770 185 194 193
-0.337953 1.690922 -3.291747 185 194 193
-0.336916 1.694689 -3.281649 184 193 192
-0.337150 1.704825 -3.283923 0 0 0
-0.335443 1.705112 -3.267303 0 0 0
-0.333659 1.704911 -3.249926 0 0 0
-0.329724 1.693566 -3.211595 0 0 0
-0.327626 1.691497 -3.191159 0 0 0
-0.326475 1.694229 -3.179944 0 0 0
-0.329081 1.716500 -3.205328 0 0 0
-0.323415 1.695541 -3.150138 0 0 0
-0.323356 1.703825 -3.149564 0 0 0
-0.322423 1.707480 -3.140478 0 0 0
-0.320558 1.706122 -3.122312 0 0 0
-0.318956 1.706073 -3.106707 0 0 0
-0.319324 1.716532 -3.110300 0 0 0
-0.316960 1.712247 -3.087271 0 0 0
-0.314199 1.705681 -3.060375 0 0 0
-0.309624 1.689073 -3.015811 0 0 0
-0.309254 1.695278 -3.012216 0 0 0
-0.308038 1.696796 -3.000366 0 0 0
-0.306895 1.698660 -2.989239 0 0 0
-0.306448 1.704326 -2.984877 0 0 0
-0.303019 1.693309 -2.951477 0 0 0
-0.299252 1.680214 -2.914790 0 0 0
-0.298865 1.685985 -2.911021 0 0 0
-0.298409 1.691345 -2.906582 0 0 0
-0.298409 1.699276 -2.906582 0 0 0
-0.296988 1.699075 -2.892737 0 0 0
-0.297090 1.707553 -2.893728 0 0 0
-0.296998 1.714917 -2.892831 0 0 0
-0.293066 1.700007 -2.854540 0 0 0
-0.094868 -0.527746 -0.949272 0 0 0
-0.094868 -0.525155 -0.949272 0 0 0
-0.092455 -0.509270 -0.925120 0 0 0
-0.093794 -0.514086 -0.938522 0 0 0
-0.093566 -0.510282 -0.936240 0 0 0
-0.095000 -0.515510 -0.950591 0 0 0
-0.094799 -0.511830 -0.948578 0 0 0
-0.094433 -0.507274 -0.944913 0 0 0
-0.093896 -0.501826 -0.939540 0 0 0
-0.095455 -0.507553 -0.955142 0 0 0
-0.093313 -0.493617 -0.933712 0 0 0
-0.092630 -0.487471 -0.926870 0 0 0
-0.094118 -0.492734 -0.941763 0 0 0
-0.095033 -0.494931 -0.950921 0 0 0
-0.094951 -0.491911 -0.950100 0 0 0
-0.094598 -0.487497 -0.946563 0 0 0
-0.093473 -0.479148 -0.935308 0 0 0
-0.094111 -0.479848 -0.941689 0 0 0
-0.094551 -0.479511 -0.946095 0 0 0
-0.094383 -0.476082 -0.944413 0 0 0
-0.092965 -0.466391 -0.930224 0 0 0
-0.092940 -0.463729 -0.929975 0 0 0
-0.093242 -0.462690 -0.932998 0 0 0
-0.092693 -0.457433 -0.927501 23 25 20
-0.092131 -0.452144 -0.921877 23 26 19
-0.091768 -0.447858 -0.918248 23 26 19
-0.092361 -0.448232 -0.924185 21 23 18
-0.092621 -0.446965 -0.926785 24 26 21
-0.092055 -0.441717 -0.921116 25 28 21
-0.092039 -0.439129 -0.920960 22 27 20
-0.092168 -0.437226 -0.922247 0 0 0
-0.090605 -0.427341 -0.906613 25 27 22
-0.089944 -0.421765 -0.899993 25 27 22
-0.090583 -0.422291 -0.906395 23 28 21
-0.091320 -0.423230 -0.913761 23 28 22
-0.091773 -0.422828 -0.918303 0 0 0
-0.090813 -0.415924 -0.908694 24 26 21
-0.090031 -0.409886 -0.900872 26 28 23
-0.089435 -0.404729 -0.894904 25 27 22
-0.089143 -0.400973 -0.891982 21 26 22
-0.087515 -0.391259 -0.875689 19 24 20
-0.084790 -0.376761 -0.848421 16 21 15
-0.193026 -0.847168 -1.931458 13 20 13
-0.194456 -0.848134 -1.945766 9 16 8
-0.195090 -0.845572 -1.952109 9 16 8
-0.194993 -0.839827 -1.951136 9 16 8
-0.195391 -0.836207 -1.955121 11 18 10
-0.195111 -0.829682 -1.952321 13 18 11
-0.195042 -0.824061 -1.951625 15 20 13
-0.194893 -0.818110 -1.950133 18 25 17
-0.195127 -0.813765 -1.952475 15 22 14
-0.195165 -0.808595 -1.952856 18 23 17
-0.195260 -0.803659 -1.953812 17 22 16
-0.195076 -0.797575 -1.951968 18 23 17
-0.195269 -0.793031 -1.953895 19 24 18
-0.195161 -0.787265 -1.952819 20 27 20
-0.195503 -0.783305 -1.956236 20 27 20
-0.195533 -0.778087 -1.956538 21 27 23
-0.195897 -0.774188 -1.960182 23 29 25
-0.195925 -0.768951 -1.960467 23 29 25
-0.196388 -0.765403 -1.965092 21 28 21
-0.196588 -0.760816 -1.967095 19 25 21
-0.197158 -0.757640 -1.972803 17 24 17
-0.197081 -0.751962 -1.972030 16 21 15
-0.197319 -0.747482 -1.974409 11 18 11
-0.197238 -0.741790 -1.973598 11 18 11
-0.197713 -0.738180 -1.978357 13 18 12
-0.197754 -0.732931 -1.978761 16 21 15
-0.198105 -0.728824 -1.982274 18 23 19
-0.198304 -0.724144 -1.984271 21 26 22
-0.198807 -0.720553 -1.989306 25 30 26
-0.198916 -0.715516 -1.990394 26 31 27
-0.198978 -0.710306 -1.991013 25 30 26
-0.198820 -0.704312 -1.989428 25 30 24
-0.198965 -0.699393 -1.990880 21 26 20
-0.199067 -0.694318 -1.991904 21 28 21
-0.199405 -0.690054 -1.995290 24 31 24
-0.199340 -0.684386 -1.994638 22 28 24
-0.199562 -0.679698 -1.996855 21 26 22
-0.199551 -0.674211 -1.996744 19 24 20
-0.199942 -0.670075 -2.000662 19 24 20
-0.199955 -0.664658 -2.000788 20 25 21
-0.200373 -0.660576 -2.004969 23 28 22
-0.200385 -0.655144 -2.005089 25 30 26
-0.200775 -0.650940 -2.008998 22 27 23
-0.200781 -0.645476 -2.009055 26 28 25
-0.200979 -0.640624 -2.011033 26 31 27
-0.200933 -0.634992 -2.010574 28 33 29
-0.201196 -0.630331 -2.013209 33 38 34
-0.201247 -0.624995 -2.013718 34 38 37
-0.201593 -0.620565 -2.017178 34 38 37
-0.201578 -0.615015 -2.017029 33 37 36
-0.201981 -0.610731 -2.021064 34 40 38
-0.201905 -0.604989 -2.020304 32 38 38
-0.202185 -0.600305 -2.023099 35 41 39
-0.202296 -0.595111 -2.024210 36 42 40
-0.202642 -0.590598 -2.027678 35 41 39
-0.202884 -0.585763 -2.030097 35 41 39
-0.203040 -0.580670 -2.031657 35 41 39
-0.203284 -0.575818 -2.034101 38 44 42
-0.203650 -0.571293 -2.037758 38 44 42
-0.204040 -0.566816 -2.041663 42 48 46
-0.204605 -0.562799 -2.047313 43 49 47
-0.204875 -0.557949 -2.050018 42 48 46
-0.205440 -0.553877 -2.055669 42 48 46
-0.205580 -0.548642 -2.057073 39 45 43
-0.206162 -0.544567 -2.062897 36 42 40
-0.206376 -0.539498 -2.065042 36 42 40
-0.207049 -0.535603 -2.071770 33 37 36
-0.207253 -0.530472 -2.073810 42 44 39
-0.207799 -0.526196 -2.079275 70 69 65
-0.208729 -0.522852 -2.088582 111 107 95
-0.211168 -0.523196 -2.112987 139 133 121
-0.218648 -0.535759 -2.187834 161 155 141
-0.222822 -0.539902 -2.229597 167 161 147
-0.224401 -0.537601 -2.245396 160 156 144
-0.223783 -0.530011 -2.239213 153 149 137
-0.224601 -0.525817 -2.247405 150 146 135
-0.225709 -0.522247 -2.258487 155 151 140
-0.226711 -0.518376 -2.268515 158 152 140
-0.230251 -0.520183 -2.303933 0 0 0
-0.233528 -0.521210 -2.336724 137 128 119
-0.304654 -0.621731 -3.048428 131 117 108
-0.304871 -0.613849 -3.050596 124 110 97
-0.305874 -0.607517 -3.060632 118 106 92
-0.308490 -0.604289 -3.086806 75 65 53
-0.310637 -0.600014 -3.108293 77 68 53
-0.311026 -0.592274 -3.112187 79 70 55
-0.308008 -0.578117 -3.081990 89 73 60
-0.305889 -0.565787 -3.060782 101 82 68
-0.319356 -0.564538 -3.195534 185 161 151
-0.321998 -0.560418 -3.221977 193 166 157
-0.324558 -0.556012 -3.247593 193 173 162
-0.322649 -0.543931 -3.228488 196 172 162
-0.321426 -0.533094 -3.216252 164 137 128
-0.320748 -0.523211 -3.209463 144 122 111
-0.319878 -0.513058 -3.200758 148 126 115
-0.319696 -0.504039 -3.198944 173 148 141
-0.319501 -0.495008 -3.196993 208 186 175
-0.320063 -0.487139 -3.202611 213 193 182
-0.320162 -0.478548 -3.203601 210 191 177
-0.321245 -0.471395 -3.214438 205 178 169
-0.318811 -0.459119 -3.190084 173 142 139
-0.319030 -0.450724 -3.192276 132 96 100
-0.321713 -0.445731 -3.219122 67 30 37
-0.322494 -0.438008 -3.226940 66 26 35
-0.322703 -0.429481 -3.229032 67 29 40
-0.323352 -0.421516 -3.235523 84 58 67
-0.323408 -0.412759 -3.236082 80 69 73
-0.323550 -0.404106 -3.237506 73 67 71
-0.323464 -0.395167 -3.236642 93 91 96
-0.323876 -0.386827 -3.240762 106 105 110
-0.323840 -0.377942 -3.240407 138 137 143
-0.324423 -0.369765 -3.246239 141 140 146
-0.324550 -0.361048 -3.247507 127 115 125
-0.325092 -0.352775 -3.252931 86 76 85
-0.325476 -0.344305 -3.256779 65 49 59
-0.326762 -0.336743 -3.269641 76 59 69
-0.327393 -0.328455 -3.275958 89 77 87
-0.327618 -0.319735 -3.278206 96 85 93
-0.327237 -0.310429 -3.274400 122 98 111
-0.327609 -0.301837 -3.278119 141 90 107
-0.327390 -0.292697 -3.275928 87 33 47
-0.327970 -0.284260 -3.281727 76 24 37
-0.328091 -0.275407 -3.282945 64 21 30
-0.328679 -0.266927 -3.288829 61 20 28
-0.328924 -0.258145 -3.291275 60 19 27
-0.329693 -0.249747 -3.298974 67 20 30
-0.330159 -0.241085 -3.303639 83 21 36
-0.330510 -0.232317 -3.307147 95 26 44
-0.331049 -0.223658 -3.312543 107 29 51
-0.331398 -0.214845 -3.316029 124 49 72
-0.331256 -0.205708 -3.314611 132 77 96
-0.331477 -0.196795 -3.316824 165 131 145
-0.332362 -0.188246 -3.325682 186 176 184
-0.334255 -0.180192 -3.344623 196 200 203
-0.445132 1.680313 -4.454081 182 191 190
-0.442102 1.680944 -4.423757 181 190 189
-0.435801 1.668885 -4.360706 181 190 189
-0.431436 1.663951 -4.317035 182 191 188
-0.429721 1.669070 -4.299875 184 193 192
-0.428137 1.674605 -4.284020 190 196 196
-0.425052 1.674144 -4.253151 194 203 202
-0.403206 1.621127 -4.034557 209 221 221
-0.388039 1.634311 -3.882794 211 225 225
-0.386815 1.639716 -3.870545 212 224 224
-0.386721 1.649878 -3.869607 209 221 221
-0.377523 1.641557 -3.777565 0 0 0
-0.377076 1.649912 -3.773099 192 201 200
-0.374861 1.650452 -3.750928 186 195 194
-0.375027 1.661425 -3.752595 184 193 190
-0.374160 1.667797 -3.743912 184 193 190
-0.372160 1.669045 -3.723904 182 191 188
-0.370697 1.672605 -3.709265 184 193 192
-0.369706 1.678228 -3.699349 183 192 191
-0.368233 1.681597 -3.684613 182 191 190
-0.367179 1.686809 -3.674068 183 192 191
-0.364972 1.686635 -3.651984 184 193 192
-0.363177 1.688253 -3.634015 182 191 190
-0.361982 1.692582 -3.622060 183 192 191
-0.360801 1.696911 -3.610244 182 191 190
-0.357478 1.691045 -3.576997 182 191 190
-0.355916 1.693371 -3.561362 183 192 191
-0.354208 1.694919 -3.544277 182 191 190
-0.351146 1.689853 -3.513635 184 193 192
-0.347843 1.683456 -3.480587 184 193 192
-0.345934 1.683659 -3.461480 184 193 192
-0.344719 1.687160 -3.449327 183 193 192
-0.343779 1.691943 -3.439915 181 191 190
-0.341421 1.689662 -3.416325 184 194 193
-0.338474 1.684320 -3.386839 184 194 193
-0.337640 1.689387 -3.378491 183 193 192
-0.336221 1.691467 -3.364291 183 193 194
-0.334749 1.693204 -3.349567 184 193 192
-0.332618 1.691504 -3.328239 185 194 193
-0.329494 1.684613 -3.296978 185 194 193
-0.328183 1.686874 -3.283867 184 193 192
-0.327326 1.691406 -3.275292 182 192 191
-0.326553 1.696324 -3.267550 0 0 0
-0.326269 1.703760 -3.264712 0 0 0
-0.324172 1.701660 -3.243730 0 0 0
-0.321532 1.696582 -3.217314 0 0 0
-0.319443 1.694279 -3.196409 0 0 0
-0.319634 1.704017 -3.198316 0 0 0
-0.318643 1.707436 -3.188403 0 0 0
-0.316491 1.704547 -3.166871 0 0 0
-0.314962 1.704909 -3.151567 0 0 0
-0.313270 1.704308 -3.134645 0 0 0
-0.312091 1.706412 -3.122842 0 0 0
-0.310132 1.704170 -3.103244 0 0 0
-0.309396 1.708572 -3.095876 0 0 0
-0.306642 1.701738 -3.068322 0 0 0
-0.305173 1.701916 -3.053620 0 0 0
-0.303591 1.701383 -3.037790 0 0 0
-0.302294 1.702366 -3.024809 0 0 0
-0.301926 1.708539 -3.021130 0 0 0
-0.299765 1.704497 -2.999510 0 0 0
-0.293968 1.687587 -2.941504 0 0 0
-0.293033 1.690217 -2.932143 0 0 0
-0.292303 1.693989 -2.924841 0 0 0
-0.291616 1.697971 -2.917968 0 0 0
-0.291616 1.705933 -2.917968 0 0 0
-0.289886 1.703729 -2.900660 0 0 0
-0.289616 1.710046 -2.897953 0 0 0
-0.288808 1.713159 -2.889864 0 0 0
-0.283158 1.687376 -2.833332 0 0 0
-0.286897 1.717491 -2.870745 0 0 0
-0.091779 -0.524890 -0.944136 0 0 0
-0.091779 -0.522314 -0.944136 0 0 0
-0.091126 -0.516040 -0.937419 0 0 0
-0.088952 -0.501235 -0.915059 0 0 0
-0.091211 -0.511401 -0.938293 0 0 0
-0.091180 -0.508667 -0.937973 0 0 0
-0.090801 -0.504003 -0.934073 0 0 0
-0.091129 -0.503269 -0.937454 0 0 0
-0.092613 -0.508861 -0.952712 0 0 0
-0.092100 -0.503459 -0.947438 0 0 0
-0.090080 -0.489889 -0.926660 0 0 0
-0.089181 -0.482494 -0.917407 0 0 0
-0.089664 -0.482594 -0.922381 0 0 0
-0.090268 -0.483312 -0.928596 0 0 0
-0.091672 -0.488255 -0.943038 0 0 0
-0.091395 -0.484212 -0.940185 0 0 0
-0.091162 -0.480419 -0.937789 0 0 0
-0.091464 -0.479446 -0.940901 0 0 0
-0.091224 -0.475623 -0.938423 0 0 0
-0.090546 -0.469548 -0.931451 0 0 0
-0.089576 -0.462002 -0.921471 0 0 0
-0.092122 -0.472550 -0.947667 0 0 0
-0.090307 -0.460705 -0.928995 0 0 0
-0.089545 -0.454305 -0.921158 20 25 18
-0.089369 -0.450904 -0.919350 20 25 18
-0.090667 -0.454904 -0.932693 0 0 0
-0.090776 -0.452903 -0.933815 0 0 0
-0.090322 -0.448106 -0.929151 22 27 20
-0.089352 -0.440784 -0.919170 22 27 20
-0.089362 -0.438324 -0.919271 22 27 20
-0.090614 -0.441921 -0.932149 0 0 0
-0.089577 -0.434351 -0.921486 0 0 0
-0.088669 -0.427457 -0.912140 0 0 0
-0.088838 -0.425781 -0.913885 22 27 20
-0.089635 -0.427085 -0.922085 22 27 21
-0.089930 -0.425967 -0.925120 25 27 22
-0.088308 -0.415803 -0.908429 23 25 20
-0.087676 -0.410367 -0.901930 24 26 21
-0.086919 -0.404386 -0.894146 22 27 21
-0.086752 -0.401173 -0.892427 21 26 20
-0.084614 -0.388911 -0.870433 18 23 17
-0.082820 -0.378339 -0.851975 16 21 15
-0.188381 -0.849990 -1.937892 13 20 13
-0.189362 -0.849100 -1.947982 9 16 8
-0.190017 -0.846702 -1.954716 10 17 9
-0.189991 -0.841255 -1.954453 10 17 9
-0.190169 -0.836702 -1.956278 12 19 11
-0.189868 -0.830048 -1.953181 11 18 10
-0.189791 -0.824387 -1.952395 14 19 12
-0.189651 -0.818453 -1.950951 13 20 12
-0.189709 -0.813379 -1.951548 14 21 13
-0.189744 -0.808204 -1.951910 16 23 16
-0.189858 -0.803359 -1.953082 16 21 15
-0.189873 -0.798095 -1.953240 16 21 15
-0.190037 -0.793447 -1.954921 16 21 15
-0.190060 -0.788208 -1.955157 15 25 17
-0.190349 -0.784065 -1.958134 18 23 17
-0.190549 -0.779539 -1.960188 20 22 19
-0.190946 -0.775804 -1.964275 21 26 20
-0.191053 -0.770878 -1.965379 20 27 20
-0.191412 -0.766952 -1.969070 19 26 18
-0.191487 -0.761875 -1.969834 18 25 18
-0.191914 -0.758187 -1.974228 16 21 15
-0.191871 -0.752634 -1.973791 16 21 15
-0.192168 -0.748406 -1.976850 13 18 12
-0.192088 -0.742701 -1.976021 13 18 12
-0.192446 -0.738684 -1.979706 16 21 15
-0.192571 -0.733758 -1.980991 21 26 22
-0.192933 -0.729720 -1.984712 23 28 24
-0.193124 -0.725021 -1.986675 25 30 26
-0.193532 -0.721123 -1.990879 24 29 25
-0.193475 -0.715479 -1.990291 23 28 24
-0.193599 -0.710502 -1.991563 21 26 22
-0.193386 -0.704291 -1.989370 21 26 20
-0.193518 -0.699341 -1.990732 21 26 20
-0.193489 -0.693804 -1.990431 20 27 20
-0.193774 -0.689389 -1.993367 19 26 19
-0.193851 -0.684221 -1.994158 21 26 20
-0.194056 -0.679496 -1.996262 18 23 19
-0.193994 -0.673834 -1.995625 20 25 21
-0.194323 -0.669524 -1.999017 21 26 22
-0.194460 -0.664536 -2.000422 24 29 25
-0.194973 -0.660818 -2.005703 25 32 25
-0.195034 -0.655550 -2.006331 25 30 26
-0.195365 -0.651178 -2.009733 23 28 24
-0.195377 -0.645734 -2.009859 25 29 28
-0.195580 -0.640915 -2.011945 25 30 26
-0.195550 -0.635327 -2.011636 26 31 27
-0.195846 -0.630791 -2.014680 31 36 32
-0.195924 -0.625544 -2.015486 33 37 36
-0.196276 -0.621159 -2.019109 34 38 37
-0.196218 -0.615467 -2.018511 33 39 37
-0.196488 -0.610799 -2.021289 34 40 38
-0.196476 -0.605246 -2.021164 37 43 43
-0.196805 -0.600734 -2.024545 37 43 41
-0.196854 -0.595360 -2.025054 41 47 45
-0.197085 -0.590526 -2.027431 42 48 46
-0.197352 -0.585787 -2.030178 41 47 45
-0.197655 -0.581137 -2.033293 44 48 47
-0.197952 -0.576454 -2.036350 40 46 44
-0.198246 -0.571745 -2.039370 42 48 46
-0.198659 -0.567360 -2.043622 41 47 45
-0.199163 -0.563207 -2.048799 41 47 45
-0.199463 -0.558459 -2.051893 41 47 45
-0.199915 -0.554112 -2.056541 40 46 44
-0.200063 -0.548907 -2.058064 40 46 44
-0.200542 -0.544592 -2.062990 37 43 41
-0.200834 -0.539747 -2.065993 34 40 38
-0.201352 -0.535487 -2.071323 34 38 37
-0.201664 -0.530656 -2.074532 41 43 38
-0.202227 -0.526461 -2.080322 63 62 58
-0.202964 -0.522683 -2.087906 91 88 83
-0.205672 -0.523882 -2.115757 134 130 121
-0.212876 -0.536258 -2.189871 160 154 142
-0.216496 -0.539300 -2.227112 171 165 153
-0.218134 -0.537258 -2.243963 162 158 147
-0.217809 -0.530344 -2.240619 157 153 142
-0.218321 -0.525461 -2.245883 156 152 141
-0.218919 -0.520755 -2.252034 157 150 140
-0.220525 -0.518385 -2.268552 166 159 149
-0.223137 -0.518263 -2.295429 154 145 136
-0.227863 -0.522843 -2.344042 142 133 124
-0.294853 -0.618620 -3.033177 130 112 102
-0.297234 -0.615271 -3.057665 153 137 124
-0.297769 -0.608021 -3.063173 165 149 136
-0.298756 -0.601650 -3.073325 153 139 126
-0.301317 -0.598350 -3.099669 141 129 115
-0.301746 -0.590730 -3.104077 142 128 115
-0.299045 -0.577049 -3.076295 142 126 113
-0.292977 -0.557116 -3.013869 142 120 107
-0.314214 -0.571040 -3.232340 183 150 141
-0.316657 -0.566592 -3.257471 213 184 176
-0.320932 -0.565233 -3.301452 0 0 0
-0.318466 -0.551950 -3.276080 232 209 193
-0.314852 -0.536848 -3.238903 229 206 190
-0.313586 -0.525887 -3.225878 205 183 169
-0.312772 -0.515743 -3.217510 181 154 145
-0.312349 -0.506278 -3.213159 184 157 148
-0.312174 -0.497232 -3.211358 195 171 161
-0.312278 -0.488632 -3.212427 213 186 177
-0.312482 -0.480180 -3.214525 196 167 159
-0.314556 -0.474537 -3.235859 175 136 131
-0.313793 -0.464577 -3.228006 123 81 82
-0.313586 -0.455468 -3.225876 84 26 38
-0.314061 -0.447344 -3.230771 89 28 43
-0.313969 -0.438398 -3.229816 84 30 46
-0.313848 -0.429420 -3.228571 86 38 54
-0.314086 -0.420930 -3.231027 114 84 96
-0.314104 -0.412136 -3.231204 112 101 109
-0.314367 -0.403658 -3.233915 105 98 106
-0.314395 -0.394868 -3.234199 115 114 120
-0.314937 -0.386709 -3.239777 126 127 132
-0.314719 -0.377608 -3.237540 153 152 160
-0.315231 -0.369373 -3.242797 160 159 165
-0.315346 -0.360656 -3.243980 147 137 146
-0.315828 -0.352342 -3.248942 112 102 111
-0.315834 -0.343483 -3.249002 70 48 60
-0.316899 -0.335746 -3.259960 68 40 52
-0.317818 -0.327799 -3.269417 83 60 70
-0.318347 -0.319408 -3.274854 92 72 81
-0.318364 -0.310489 -3.275029 82 56 67
-0.318918 -0.302077 -3.280729 83 36 52
-0.319132 -0.293322 -3.282928 96 32 49
-0.319633 -0.284811 -3.288090 102 33 51
-0.319635 -0.275840 -3.288104 94 27 44
-0.319619 -0.266855 -3.287942 74 20 33
-0.319362 -0.257676 -3.285299 70 18 30
-0.319614 -0.248908 -3.287890 70 20 31
-0.320368 -0.240502 -3.295649 84 20 36
-0.321047 -0.232000 -3.302635 94 22 42
-0.321541 -0.223332 -3.307713 107 32 53
-0.321762 -0.214453 -3.309988 132 60 82
-0.321857 -0.205482 -3.310960 140 98 112
-0.321565 -0.196270 -3.307964 168 140 152
-0.322244 -0.187639 -3.314947 190 180 188
-0.324216 -0.179686 -3.335235 202 203 207
-0.434542 1.674182 -4.470162 184 193 192
-0.432712 1.679278 -4.451338 183 192 191
-0.428383 1.674504 -4.406808 184 193 192
-0.423665 1.667954 -4.358274 188 197 196
-0.419678 1.664036 -4.317254 191 200 199
-0.417124 1.665616 -4.290977 190 200 199
-0.415478 1.670707 -4.274047 194 204 203
-0.412407 1.669934 -4.242455 201 211 210
-0.391444 1.618013 -4.026807 210 224 224
-0.383809 1.651098 -3.948272 210 224 224
-0.380972 1.649584 -3.919080 208 222 222
-0.378969 1.651550 -3.898479 212 224 224
-0.378376 1.659588 -3.892381 209 221 221
-0.378034 1.668699 -3.888862 208 218 219
-0.376365 1.671898 -3.871696 203 213 214
-0.374314 1.673289 -3.850588 199 208 207
-0.372047 1.673603 -3.827277 0 0 0
-0.369746 1.673630 -3.803604 0 0 0
-0.368157 1.676772 -3.787260 184 193 190
-0.367116 1.682335 -3.776549 185 194 191
-0.364209 1.679236 -3.746642 184 193 190
-0.362089 1.679626 -3.724834 186 195 194
-0.360064 1.680337 -3.703998 185 194 193
-0.358590 1.683525 -3.688838 184 193 192
-0.357069 1.686407 -3.673191 185 194 193
-0.355251 1.687791 -3.654487 183 192 191
-0.353200 1.687964 -3.633395 183 192 191
-0.351427 1.689354 -3.615153 182 192 191
-0.349577 1.690272 -3.596118 184 193 192
-0.346530 1.685266 -3.564773 184 193 192
-0.345524 1.690076 -3.554431 186 192 192
-0.344136 1.692946 -3.540152 184 193 192
-0.341571 1.689912 -3.513759 185 194 193
-0.339063 1.687024 -3.487965 184 193 192
-0.338124 1.691844 -3.478306 186 195 194
-0.336563 1.693477 -3.462241 182 192 191
-0.335019 1.695114 -3.446362 183 193 192
-0.332667 1.692554 -3.422171 184 194 193
-0.329979 1.688140 -3.394520 184 194 193
-0.328052 1.687489 -3.374695 183 193 192
-0.327251 1.692554 -3.366453 182 192 191
-0.325579 1.693045 -3.349252 184 193 192
-0.323248 1.689996 -3.325271 185 194 193
-0.321480 1.689775 -3.307081 184 193 192
-0.318830 1.684797 -3.279824 185 194 193
-0.317899 1.688804 -3.270252 184 193 192
-0.317588 1.696064 -3.267047 0 0 0
-0.316700 1.700210 -3.257911 0 0 0
-0.314583 1.697678 -3.236139 0 0 0
-0.313807 1.702296 -3.228150 0 0 0
-0.312411 1.703492 -3.213789 0 0 0
-0.311082 1.704979 -3.200121 0 0 0
-0.309892 1.707155 -3.187878 0 0 0
-0.307685 1.703632 -3.165172 0 0 0
-0.306158 1.703774 -3.149469 0 0 0
-0.305000 1.705889 -3.137552 0 0 0
-0.303771 1.707541 -3.124907 0 0 0
-0.301169 1.701373 -3.098150 0 0 0
-0.299293 1.699171 -3.078842 0 0 0
-0.297838 1.699272 -3.063875 0 0 0
-0.295386 1.693575 -3.038655 0 0 0
-0.294522 1.696890 -3.029769 0 0 0
-0.293914 1.701634 -3.023509 0 0 0
-0.294388 1.712646 -3.028392 0 0 0
-0.295646 1.728263 -3.041334 0 0 0
-0.286538 1.691107 -2.947639 0 0 0
-0.284568 1.687468 -2.927373 0 0 0
-0.282848 1.685208 -2.909679 0 0 0
-0.283383 1.696348 -2.915179 0 0 0
-0.283383 1.704302 -2.915179 0 0 0
-0.284464 1.718786 -2.926296 0 0 0
-0.283676 1.721989 -2.918192 0 0 0
-0.283510 1.728941 -2.916487 0 0 0
-0.277928 1.702698 -2.859059 0 0 0
-0.272088 1.674560 -2.798987 0 0 0
-0.092390 -0.543643 -0.977866 0 0 0
-0.092390 -0.540974 -0.977866 0 0 0
-0.089071 -0.518972 -0.942744 0 0 0
-0.088681 -0.514137 -0.938614 0 0 0
-0.086404 -0.498441 -0.914515 0 0 0
-0.087143 -0.500185 -0.922332 0 0 0
-0.087266 -0.498371 -0.923635 0 0 0
-0.088973 -0.505553 -0.941707 0 0 0
-0.089862 -0.508009 -0.951116 0 0 0
-0.088828 -0.499599 -0.940174 0 0 0
-0.086867 -0.486058 -0.919414 0 0 0
-0.085792 -0.477566 -0.908036 0 0 0
-0.084899 -0.470145 -0.898588 0 0 0
-0.085061 -0.468585 -0.900302 0 0 0
-0.086341 -0.473139 -0.913843 0 0 0
-0.089033 -0.485324 -0.942344 0 0 0
-0.089197 -0.483641 -0.944077 0 0 0
-0.089486 -0.482624 -0.947137 0 0 0
-0.088964 -0.477237 -0.941608 0 0 0
-0.086915 -0.463736 -0.919923 0 0 0
-0.086783 -0.460526 -0.918527 0 0 0
-0.087822 -0.463501 -0.929519 0 0 0
-0.087498 -0.459266 -0.926095 0 0 0
-0.087353 -0.455983 -0.924561 23 26 19
-0.088471 -0.459260 -0.936386 0 0 0
-0.088874 -0.458786 -0.940654 21 26 19
-0.088575 -0.454687 -0.937494 22 27 20
-0.087687 -0.447595 -0.928092 22 27 20
-0.086508 -0.439080 -0.915617 23 28 21
-0.087040 -0.439265 -0.921245 21 26 19
-0.087861 -0.440870 -0.929932 25 27 22
-0.087472 -0.436391 -0.925813 25 27 22
-0.086722 -0.430149 -0.917884 22 27 20
-0.086474 -0.426421 -0.915258 22 27 20
-0.086334 -0.423237 -0.913776 21 26 20
-0.086632 -0.422194 -0.916927 25 27 22
-0.085158 -0.412552 -0.901327 24 26 21
-0.085140 -0.410006 -0.901138 24 26 21
-0.084057 -0.402365 -0.889678 24 29 23
-0.084452 -0.401812 -0.893849 20 25 19
-0.082951 -0.392279 -0.877970 16 23 16
-0.079291 -0.372678 -0.839227 13 20 13
-0.184323 -0.850376 -1.950909 8 15 7
-0.184870 -0.847559 -1.956695 9 16 8
-0.184612 -0.841043 -1.953961 10 17 9
-0.184830 -0.836699 -1.956270 13 20 12
-0.184494 -0.829847 -1.952709 12 19 11
-0.184574 -0.824877 -1.953558 12 19 11
-0.184324 -0.818439 -1.950917 13 20 12
-0.184434 -0.813599 -1.952076 12 19 11
-0.184446 -0.808325 -1.952204 13 20 13
-0.184705 -0.804128 -1.954951 14 19 13
-0.184730 -0.798899 -1.955209 14 19 13
-0.184894 -0.794270 -1.956948 15 20 14
-0.184889 -0.788911 -1.956900 14 21 14
-0.185150 -0.784675 -1.959656 17 22 16
-0.185250 -0.779749 -1.960715 19 24 18
-0.185698 -0.776273 -1.965462 20 25 19
-0.185848 -0.771532 -1.967047 16 23 16
-0.186249 -0.767815 -1.971284 17 24 17
-0.186209 -0.762274 -1.970867 15 22 15
-0.186573 -0.758377 -1.974721 13 18 12
-0.186608 -0.753130 -1.975091 15 20 14
-0.187094 -0.749687 -1.980233 18 23 17
-0.187150 -0.744504 -1.980821 22 27 21
-0.187553 -0.740692 -1.985090 25 30 24
-0.187537 -0.735213 -1.984922 26 31 27
-0.187757 -0.730654 -1.987251 25 30 26
-0.187690 -0.724972 -1.986540 24 29 25
-0.188045 -0.720912 -1.990297 23 28 24
-0.187978 -0.715225 -1.989585 22 27 23
-0.188209 -0.710670 -1.992035 22 27 23
-0.188044 -0.704616 -1.990287 18 23 17
-0.188215 -0.699821 -1.992097 20 25 19
-0.188175 -0.694237 -1.991672 18 25 18
-0.188395 -0.689609 -1.994005 18 25 18
-0.188372 -0.684083 -1.993756 20 25 19
-0.188550 -0.679284 -1.995641 17 22 18
-0.188489 -0.673621 -1.994995 21 26 22
-0.188863 -0.669505 -1.998960 22 27 23
-0.189035 -0.664653 -2.000774 25 30 26
-0.189540 -0.660954 -2.006117 26 33 26
-0.189546 -0.655504 -2.006191 28 34 30
-0.189791 -0.650869 -2.008780 25 30 26
-0.189810 -0.645452 -2.008981 26 30 29
-0.190172 -0.641189 -2.012807 24 29 25
-0.190286 -0.636080 -2.014020 28 33 29
-0.190672 -0.631863 -2.018102 29 33 32
-0.190746 -0.626599 -2.018885 31 35 34
-0.190978 -0.621846 -2.021342 32 38 36
-0.190938 -0.616201 -2.020916 35 41 39
-0.191149 -0.611361 -2.023151 38 44 42
-0.191243 -0.606138 -2.024142 39 45 45
-0.191509 -0.601452 -2.026965 41 47 45
-0.191589 -0.596169 -2.027808 42 48 46
-0.191731 -0.591073 -2.029309 39 45 43
-0.191942 -0.586182 -2.031548 41 47 45
-0.192309 -0.581747 -2.035428 44 45 47
-0.192583 -0.577014 -2.038325 39 45 43
-0.192973 -0.572610 -2.042455 42 48 46
-0.193301 -0.568000 -2.045926 39 45 43
-0.193804 -0.563883 -2.051257 41 47 45
-0.194012 -0.558883 -2.053452 43 49 47
-0.194457 -0.554550 -2.058164 40 46 44
-0.194592 -0.549315 -2.059593 37 43 41
-0.194951 -0.544699 -2.063396 37 41 40
-0.195161 -0.539649 -2.065620 34 40 38
-0.195618 -0.535262 -2.070451 35 39 38
-0.195956 -0.530527 -2.074025 39 41 36
-0.196702 -0.526867 -2.081928 48 47 43
-0.197620 -0.523619 -2.091645 75 71 68
-0.200413 -0.525230 -2.121201 119 114 108
-0.206943 -0.536368 -2.190320 151 147 138
-0.210386 -0.539215 -2.226758 172 168 159
-0.211978 -0.537172 -2.243606 167 163 154
-0.212194 -0.531592 -2.245893 163 160 153
-0.212830 -0.527039 -2.252628 163 158 152
-0.212854 -0.520951 -2.252879 160 155 149
-0.213863 -0.517244 -2.263557 168 161 151
-0.215266 -0.514421 -2.278413 159 152 142
-0.219451 -0.518084 -2.322706 146 139 129
-0.296696 -0.649032 -3.140277 109 90 83
-0.288600 -0.622987 -3.054590 107 87 78
-0.290413 -0.618513 -3.073774 121 101 90
-0.289500 -0.608207 -3.064110 134 116 104
-0.290853 -0.602651 -3.078435 132 116 103
-0.292710 -0.598044 -3.098087 123 109 96
-0.292848 -0.589868 -3.099547 113 97 84
-0.287821 -0.571432 -3.046348 102 84 74
-0.285240 -0.558069 -3.019029 119 101 91
-0.287518 -0.554223 -3.043141 141 112 104
-0.306116 -0.572390 -3.239979 143 102 96
-0.309627 -0.570014 -3.277147 213 182 177
-0.312012 -0.565394 -3.302391 229 200 192
-0.314059 -0.560031 -3.324049 0 0 0
-0.312355 -0.547973 -3.306020 0 0 0
-0.308583 -0.532444 -3.266097 224 199 192
-0.306220 -0.519521 -3.241079 207 179 175
-0.304849 -0.508391 -3.226566 185 156 152
-0.304565 -0.499122 -3.223563 132 101 98
-0.304468 -0.490171 -3.222543 86 46 46
-0.303995 -0.480629 -3.217534 131 89 90
-0.304098 -0.472009 -3.218619 104 51 57
-0.305524 -0.465399 -3.233720 86 30 39
-0.306413 -0.457904 -3.243125 89 31 45
-0.305806 -0.448164 -3.236696 92 25 43
-0.305359 -0.438690 -3.231965 93 25 48
-0.305070 -0.429465 -3.228910 98 55 72
-0.305180 -0.420806 -3.230072 146 118 132
-0.305142 -0.411942 -3.229677 144 132 142
-0.305349 -0.403402 -3.231863 132 125 133
-0.305336 -0.394566 -3.231721 137 137 145
-0.305951 -0.386525 -3.238238 136 141 147
-0.305961 -0.377702 -3.238345 163 161 172
-0.306703 -0.369759 -3.246189 172 171 179
-0.306597 -0.360777 -3.245070 159 152 160
-0.306938 -0.352314 -3.248679 141 128 138
-0.306763 -0.343253 -3.246829 78 52 65
-0.307695 -0.335410 -3.256692 70 23 39
-0.308422 -0.327295 -3.264384 73 22 39
-0.309249 -0.319241 -3.273141 65 24 38
-0.309280 -0.310341 -3.273469 64 31 42
-0.309758 -0.301875 -3.278527 68 22 35
-0.310173 -0.293322 -3.282925 83 22 38
-0.310635 -0.284787 -3.287810 99 30 48
-0.310619 -0.275802 -3.287644 108 33 53
-0.310511 -0.266738 -3.286501 107 34 53
-0.310026 -0.257367 -3.281361 94 25 43
-0.310115 -0.248485 -3.282309 88 24 40
-0.310474 -0.239806 -3.286111 96 24 44
-0.311502 -0.231603 -3.296983 99 27 47
-0.312244 -0.223138 -3.304843 106 32 55
-0.312896 -0.214567 -3.311742 150 91 111
-0.312986 -0.205590 -3.312698 147 115 128
-0.312750 -0.196402 -3.310200 173 158 165
-0.313007 -0.187524 -3.312915 191 190 195
-0.423052 1.676985 -4.477645 183 192 191
-0.419882 1.676546 -4.444095 183 192 191
-0.416727 1.675984 -4.410703 181 190 189
-0.413574 1.675248 -4.377332 182 191 190
-0.408996 1.668517 -4.328879 184 193 192
-0.405586 1.666318 -4.292785 184 194 193
-0.402471 1.665147 -4.259822 187 197 196
-0.399902 1.666068 -4.232633 188 198 197
-0.397050 1.665650 -4.202439 191 203 203
-0.386571 1.644018 -4.091526 200 212 212
-0.382290 1.647893 -4.046216 210 222 222
-0.381755 1.656613 -4.040555 211 223 223
-0.380370 1.661588 -4.025896 208 222 222
-0.378323 1.663574 -4.004233 209 223 223
-0.376361 1.665815 -3.983467 212 224 224
-0.374136 1.666774 -3.959919 0 0 0
-0.371698 1.666645 -3.934111 210 222 222
-0.369624 1.668022 -3.912162 209 219 220
-0.368262 1.672511 -3.897746 205 215 216
-0.366896 1.676904 -3.883291 199 209 208
-0.365142 1.679431 -3.864722 197 206 205
-0.363161 1.680808 -3.843753 191 200 199
-0.360144 1.677248 -3.811826 187 196 195
-0.358363 1.679300 -3.792970 184 193 192
-0.356322 1.680027 -3.771368 185 194 191
-0.354231 1.680397 -3.749233 185 194 193
-0.352045 1.680196 -3.726100 185 194 193
-0.350158 1.681303 -3.706129 184 193 192
-0.348525 1.683529 -3.688847 183 192 191
-0.347060 1.686473 -3.673336 183 192 191
-0.344775 1.685330 -3.649158 183 192 191
-0.342669 1.684930 -3.626862 183 192 191
-0.340509 1.684142 -3.603998 181 191 190
-0.337657 1.679791 -3.573820 183 192 191
-0.336595 1.684229 -3.562581 185 194 193
-0.335701 1.689447 -3.553110 185 191 191
-0.333399 1.687493 -3.528750 186 192 192
-0.331806 1.689014 -3.511892 183 192 191
-0.330950 1.694215 -3.502833 184 193 192
-0.329470 1.696152 -3.487163 185 194 193
-0.327072 1.693254 -3.461785 185 195 194
-0.325269 1.693313 -3.442700 184 194 193
-0.323030 1.690984 -3.418998 185 194 193
-0.321225 1.690816 -3.399901 185 194 193
-0.319318 1.690000 -3.379716 184 193 192
-0.318009 1.692257 -3.365862 186 195 192
-0.316473 1.693223 -3.349605 185 194 193
-0.314589 1.692227 -3.329662 185 194 193
-0.313030 1.692883 -3.313164 185 194 193
-0.311567 1.693969 -3.297678 185 194 193
-0.310106 1.694978 -3.282208 185 194 193
-0.308452 1.694849 -3.264708 0 0 0
-0.308529 1.704180 -3.265517 0 0 0
-0.306193 1.700121 -3.240796 0 0 0
-0.304369 1.698782 -3.221487 0 0 0
-0.304472 1.708155 -3.222586 0 0 0
-0.303083 1.709114 -3.207881 0 0 0
-0.300935 1.705691 -3.185144 0 0 0
-0.299097 1.703910 -3.165689 0 0 0
-0.298977 1.711862 -3.164421 0 0 0
-0.296913 1.708621 -3.142578 0 0 0
-0.294445 1.702923 -3.116457 0 0 0
-0.293144 1.703862 -3.102681 0 0 0
-0.291126 1.700539 -3.081320 0 0 0
-0.289770 1.700987 -3.066967 0 0 0
-0.288626 1.702613 -3.054869 0 0 0
-0.285948 1.695068 -3.026516 0 0 0
-0.285814 1.702528 -3.025098 0 0 0
-0.287787 1.722595 -3.045984 0 0 0
-0.287550 1.729479 -3.043473 0 0 0
-0.274702 1.676009 -2.907495 0 0 0
-0.276072 1.692340 -2.921993 0 0 0
-0.277582 1.709612 -2.937974 0 0 0
-0.276394 1.710276 -2.925397 0 0 0
-0.276394 1.718258 -2.925397 0 0 0
-0.276644 1.727802 -2.928043 0 0 0
-0.274360 1.729385 -2.903869 0 0 0
-0.275597 1.745141 -2.916961 0 0 0
-0.084186 -0.510100 -0.917533 0 0 0
-0.084186 -0.507597 -0.917533 0 0 0
-0.087045 -0.522248 -0.948696 0 0 0
-0.086864 -0.518578 -0.946722 0 0 0
-0.086442 -0.513490 -0.942126 0 0 0
-0.088397 -0.522472 -0.963429 0 0 0
-0.084380 -0.496223 -0.919653 0 0 0
-0.086169 -0.504183 -0.939155 0 0 0
-0.086832 -0.505477 -0.946375 0 0 0
-0.086444 -0.500648 -0.942147 0 0 0
-0.084906 -0.489212 -0.925380 0 0 0
-0.083691 -0.479724 -0.912139 0 0 0
-0.083038 -0.473515 -0.905030 0 0 0
-0.082037 -0.465363 -0.894111 0 0 0
-0.083587 -0.471674 -0.911013 0 0 0
-0.086548 -0.485808 -0.943283 0 0 0
-0.087323 -0.487558 -0.951723 0 0 0
-0.087688 -0.486990 -0.955706 0 0 0
-0.086252 -0.476451 -0.940057 0 0 0
-0.085123 -0.467679 -0.927744 0 0 0
-0.084969 -0.464311 -0.926075 0 0 0
-0.086967 -0.472638 -0.947843 0 0 0
-0.086395 -0.466965 -0.941618 0 0 0
-0.085242 -0.458194 -0.929044 22 25 18
-0.085606 -0.457607 -0.933017 22 25 18
-0.086372 -0.459134 -0.941367 24 27 20
-0.086187 -0.455587 -0.939349 22 25 18
-0.085180 -0.447727 -0.928366 22 27 20
-0.084331 -0.440761 -0.919122 24 27 20
-0.084473 -0.438988 -0.920664 24 26 21
-0.084758 -0.437947 -0.923767 22 27 21
-0.084624 -0.434742 -0.922315 21 28 21
-0.084123 -0.429666 -0.916853 22 27 21
-0.083518 -0.424088 -0.910252 24 26 21
-0.083653 -0.422286 -0.911723 24 26 21
-0.084720 -0.425153 -0.923354 23 25 20
-0.084257 -0.420328 -0.918316 0 0 0
-0.082620 -0.409704 -0.900473 27 28 23
-0.081808 -0.403242 -0.891617 23 28 22
-0.081434 -0.398979 -0.887547 20 25 19
-0.080119 -0.390151 -0.873209 17 24 17
-0.078381 -0.379358 -0.854269 0 0 0
-0.178950 -0.850138 -1.950363 7 14 6
-0.179247 -0.846220 -1.953604 10 17 10
-0.179038 -0.839905 -1.951318 9 16 8
-0.179232 -0.835487 -1.953436 11 18 10
-0.179044 -0.829284 -1.951384 10 17 9
-0.179265 -0.824977 -1.953794 12 19 11
-0.179056 -0.818691 -1.951518 14 21 13
-0.179252 -0.814255 -1.953650 14 21 13
-0.179220 -0.808781 -1.953304 13 20 13
-0.179437 -0.804426 -1.955676 15 20 14
-0.179500 -0.799368 -1.956356 14 19 12
-0.179700 -0.794913 -1.958533 12 17 10
-0.179742 -0.789756 -1.958997 16 21 15
-0.179818 -0.784742 -1.959825 19 24 18
-0.179840 -0.779490 -1.960064 20 25 19
-0.180297 -0.776107 -1.965041 22 27 21
-0.180515 -0.771680 -1.967424 17 24 17
-0.180966 -0.768226 -1.972341 18 23 17
-0.180960 -0.762816 -1.972267 12 19 12
-0.181320 -0.758942 -1.976193 16 21 15
-0.181309 -0.753504 -1.976072 16 21 15
-0.181698 -0.749717 -1.980313 23 28 22
-0.181772 -0.744617 -1.981121 25 30 24
-0.182141 -0.740712 -1.985143 25 30 26
-0.182142 -0.735300 -1.985154 24 29 23
-0.182338 -0.730668 -1.987291 22 27 21
-0.182315 -0.725152 -1.987035 21 27 23
-0.182650 -0.721054 -1.990689 19 24 20
-0.182652 -0.715628 -1.990706 20 25 21
-0.182869 -0.711042 -1.993076 22 27 23
-0.182707 -0.704980 -1.991315 21 26 22
-0.182763 -0.699760 -1.991924 20 25 19
-0.182718 -0.694153 -1.991431 21 26 20
-0.182933 -0.689530 -1.993775 21 26 20
-0.183047 -0.684515 -1.995016 22 27 23
-0.183236 -0.679772 -1.997072 21 26 22
-0.183190 -0.674153 -1.996570 24 29 25
-0.183464 -0.669705 -1.999556 25 30 26
-0.183618 -0.664808 -2.001240 26 31 27
-0.184099 -0.661073 -2.006477 24 30 26
-0.184175 -0.655870 -2.007309 27 33 29
-0.184441 -0.651331 -2.010207 24 30 28
-0.184509 -0.646084 -2.010948 27 31 30
-0.184876 -0.641870 -2.014946 25 29 28
-0.184972 -0.636704 -2.015995 25 29 28
-0.185251 -0.632156 -2.019038 26 32 30
-0.185273 -0.626722 -2.019281 30 36 34
-0.185529 -0.622068 -2.022063 35 41 39
-0.185498 -0.616449 -2.021732 35 41 39
-0.185651 -0.611436 -2.023399 38 44 42
-0.185753 -0.606249 -2.024514 38 44 42
-0.186107 -0.601869 -2.028369 39 45 43
-0.186271 -0.596860 -2.030159 39 45 43
-0.186380 -0.591665 -2.031340 40 46 44
-0.186493 -0.586478 -2.032573 40 46 46
-0.186842 -0.582020 -2.036382 40 46 46
-0.187074 -0.577179 -2.038908 36 42 40
-0.187517 -0.572968 -2.043732 39 45 43
-0.187833 -0.568349 -2.047184 39 45 43
-0.188369 -0.564369 -2.053024 41 47 45
-0.188483 -0.559105 -2.054268 39 45 43
-0.188845 -0.554563 -2.058213 39 45 43
-0.189041 -0.549516 -2.060347 35 41 39
-0.189341 -0.544756 -2.063613 36 42 40
-0.189500 -0.539579 -2.065351 34 39 35
-0.189850 -0.534929 -2.069163 32 38 34
-0.190183 -0.530211 -2.072791 59 60 55
-0.191261 -0.527529 -2.084543 108 109 103
-0.192258 -0.524561 -2.095408 155 151 148
-0.195098 -0.526508 -2.126361 176 172 163
-0.201091 -0.536700 -2.191677 136 132 123
-0.204431 -0.539533 -2.228074 163 159 150
-0.206032 -0.537633 -2.245528 155 151 142
-0.206452 -0.532589 -2.250108 148 145 138
-0.207433 -0.528950 -2.260796 146 143 136
-0.207647 -0.523321 -2.263128 144 139 133
-0.208314 -0.518808 -2.270405 162 157 151
-0.208810 -0.513832 -2.275805 159 156 149
-0.209806 -0.510044 -2.286660 153 148 142
-0.282686 -0.619961 -3.080972 114 94 83
-0.282671 -0.611522 -3.080811 125 105 94
-0.285366 -0.608866 -3.110183 120 104 91
-0.286261 -0.602261 -3.119933 109 95 84
-0.283987 -0.589032 -3.095151 92 78 67
-0.278785 -0.569951 -3.038454 92 75 67
-0.276967 -0.557998 -3.018645 106 89 81
-0.299116 -0.575935 -3.260047 125 84 80
-0.301450 -0.571463 -3.285480 98 52 54
-0.306425 -0.571782 -3.339707 77 34 41
-0.307939 -0.565450 -3.356209 120 84 86
-0.307815 -0.556067 -3.354854 137 109 106
-0.304940 -0.541805 -3.323519 0 0 0
-0.300521 -0.525015 -3.275353 90 41 47
-0.298333 -0.512321 -3.251509 79 28 37
-0.297853 -0.502638 -3.246274 83 32 39
-0.297526 -0.493238 -3.242713 96 30 44
-0.296512 -0.482739 -3.231659 95 29 43
-0.296109 -0.473278 -3.227273 105 34 50
-0.296313 -0.464791 -3.229492 101 34 51
-0.297557 -0.457894 -3.243057 94 29 49
-0.297250 -0.448581 -3.239708 97 25 49
-0.296684 -0.438904 -3.233538 95 25 53
-0.296601 -0.429960 -3.232631 133 102 118
-0.296403 -0.420858 -3.230475 175 157 171
-0.296315 -0.411920 -3.229511 172 164 177
-0.296295 -0.403082 -3.229300 170 168 179
-0.296305 -0.394284 -3.229412 167 169 181
-0.296868 -0.386204 -3.235542 166 170 181
-0.297021 -0.377570 -3.237212 192 192 204
-0.297926 -0.369860 -3.247077 196 196 206
-0.297826 -0.360878 -3.245983 190 182 193
-0.298337 -0.352625 -3.251555 169 153 164
-0.297942 -0.343298 -3.247251 96 65 80
-0.298511 -0.335076 -3.253454 87 25 46
-0.299045 -0.326782 -3.259273 88 27 45
-0.299714 -0.318599 -3.266558 84 25 43
-0.300091 -0.310076 -3.270673 77 23 37
-0.300092 -0.301153 -3.270687 72 22 33
-0.300391 -0.292519 -3.273939 72 20 32
-0.300756 -0.283930 -3.277917 88 21 38
-0.301238 -0.275426 -3.283170 107 34 53
-0.301366 -0.266581 -3.284562 111 34 54
-0.301296 -0.257559 -3.283803 112 35 55
-0.301242 -0.248554 -3.283220 106 31 51
-0.301452 -0.239762 -3.285508 109 31 55
-0.301878 -0.231123 -3.290150 118 40 64
-0.303047 -0.223006 -3.302893 123 49 74
-0.303752 -0.214491 -3.310572 161 108 128
-0.304193 -0.205756 -3.315375 158 130 142
-0.304237 -0.196738 -3.315862 186 175 183
-0.304970 -0.188142 -3.323841 194 195 199
-0.407919 1.677221 -4.445883 183 192 191
-0.404503 1.675206 -4.408655 183 192 191
-0.401415 1.674355 -4.374998 182 191 190
-0.398356 1.673439 -4.341651 182 191 190
-0.394952 1.670884 -4.304549 182 192 191
-0.392569 1.672481 -4.278585 183 193 192
-0.388457 1.666515 -4.233769 185 195 194
-0.385909 1.667057 -4.205990 188 198 197
-0.383628 1.668613 -4.181131 196 208 206
-0.379391 1.661467 -4.134953 196 208 206
-0.375951 1.657583 -4.097460 203 215 215
-0.374370 1.661748 -4.080235 207 219 219
-0.372650 1.665194 -4.061485 209 221 221
-0.371798 1.672444 -4.052200 210 222 222
-0.368896 1.670363 -4.020576 210 222 222
-0.367007 1.672723 -3.999985 208 220 220
-0.364701 1.673059 -3.974852 207 219 219
-0.362312 1.672872 -3.948810 206 218 218
-0.359586 1.670979 -3.919098 203 213 212
-0.357767 1.673167 -3.899275 202 212 211
-0.356412 1.677433 -3.884514 198 208 207
-0.355006 1.681371 -3.869184 194 204 203
-0.353073 1.682716 -3.848118 190 200 199
-0.350448 1.680628 -3.819509 187 196 195
-0.347027 1.674540 -3.782218 188 197 196
-0.345575 1.677813 -3.766398 185 194 193
-0.343595 1.678420 -3.744822 185 194 193
-0.342059 1.681085 -3.728071 183 192 191
-0.339846 1.680320 -3.703961 184 193 192
-0.338306 1.682765 -3.687172 185 194 193
-0.336620 1.684391 -3.668801 183 192 191
-0.334916 1.685824 -3.650226 185 194 193
-0.332524 1.683673 -3.624157 183 192 191
-0.329985 1.680629 -3.596481 182 193 189
-0.328329 1.681961 -3.578436 186 195 192
-0.325759 1.678483 -3.550426 184 192 194
-0.325643 1.687569 -3.549160 183 192 191
-0.323442 1.685782 -3.525171 184 193 192
-0.321855 1.687081 -3.507872 185 194 193
-0.320974 1.692008 -3.498268 184 193 192
-0.318129 1.686471 -3.467260 186 195 194
-0.316653 1.688064 -3.451174 187 196 195
-0.315415 1.690848 -3.437689 187 196 195
-0.313606 1.690473 -3.417965 186 195 194
-0.312040 1.691316 -3.400905 186 195 194
-0.310073 1.689876 -3.379468 187 196 195
-0.308411 1.689990 -3.361353 186 195 192
-0.306885 1.690750 -3.344713 186 195 192
-0.305615 1.692842 -3.330872 188 194 194
-0.303599 1.690706 -3.308903 186 195 194
-0.303092 1.696898 -3.303381 187 196 195
-0.302033 1.699949 -3.291834 185 194 193
-0.299759 1.696067 -3.267055 0 0 0
-0.298914 1.700175 -3.257843 0 0 0
-0.297804 1.702717 -3.245744 0 0 0
-0.296766 1.705610 -3.234434 0 0 0
-0.294682 1.702395 -3.211719 0 0 0
-0.293735 1.705658 -3.201395 0 0 0
-0.291100 1.699016 -3.172679 0 0 0
-0.290736 1.705540 -3.168716 0 0 0
-0.288705 1.702210 -3.146578 0 0 0
-0.286930 1.700276 -3.127229 0 0 0
-0.286303 1.705073 -3.120391 0 0 0
-0.284737 1.704219 -3.103333 0 0 0
-0.284059 1.708608 -3.095941 0 0 0
-0.281639 1.702427 -3.069564 0 0 0
-0.281689 1.711104 -3.070104 0 0 0
-0.280683 1.713341 -3.059143 0 0 0
-0.277610 1.702841 -3.025653 0 0 0
-0.277267 1.708980 -3.021910 0 0 0
-0.278618 1.725592 -3.036633 0 0 0
-0.275494 1.714440 -3.002590 0 0 0
-0.271330 1.696596 -2.957206 0 0 0
-0.270511 1.699517 -2.948275 0 0 0
-0.270850 1.725816 -2.951978 0 0 0
-0.270850 1.733871 -2.951978 0 0 0
-0.271880 1.748550 -2.963203 0 0 0
-0.267123 1.725901 -2.911358 0 0 0
-0.267713 1.737675 -2.917790 0 0 0
-0.080311 -0.501537 -0.902130 0 0 0
-0.080311 -0.499076 -0.902130 0 0 0
-0.083078 -0.513725 -0.933213 0 0 0
-0.084860 -0.522147 -0.953237 0 0 0
-0.084026 -0.514434 -0.943858 0 0 0
-0.083487 -0.508581 -0.937814 0 0 0
-0.082360 -0.499189 -0.925151 0 0 0
-0.082646 -0.498391 -0.928367 0 0 0
-0.082990 -0.497917 -0.932221 0 0 0
-0.084050 -0.501703 -0.944134 0 0 0
-0.083519 -0.495972 -0.938165 0 0 0
-0.082361 -0.486571 -0.925159 0 0 0
-0.080946 -0.475731 -0.909264 0 0 0
-0.082356 -0.481492 -0.925100 0 0 0
-0.082128 -0.477645 -0.922546 0 0 0
-0.084220 -0.487228 -0.946041 0 0 0
-0.084973 -0.488981 -0.954502 0 0 0
-0.085421 -0.488941 -0.959535 0 0 0
-0.083619 -0.476063 -0.939292 0 0 0
-0.083626 -0.473540 -0.939371 0 0 0
-0.083853 -0.472254 -0.941918 0 0 0
-0.085127 -0.476821 -0.956231 0 0 0
-0.084083 -0.468394 -0.944499 0 0 0
-0.083065 -0.460180 -0.933071 23 26 19
-0.082465 -0.454329 -0.926332 22 25 18
-0.083290 -0.456319 -0.935594 23 26 19
-0.083181 -0.453173 -0.934373 22 27 20
-0.083011 -0.449705 -0.932467 23 26 19
-0.081966 -0.441528 -0.920722 23 26 19
-0.082757 -0.443251 -0.929604 24 26 21
-0.082815 -0.441028 -0.930266 23 28 22
-0.082497 -0.436804 -0.926690 24 29 23
-0.081331 -0.428137 -0.913591 21 26 20
-0.081270 -0.425327 -0.912910 22 27 21
-0.081814 -0.425665 -0.919019 24 26 21
-0.082336 -0.425855 -0.924878 23 25 20
-0.080917 -0.416037 -0.908941 23 25 20
-0.080164 -0.409710 -0.900485 25 27 22
-0.078940 -0.401031 -0.886728 21 26 20
-0.078816 -0.397986 -0.885338 20 25 19
-0.077485 -0.388891 -0.870389 17 24 17
-0.077212 -0.385154 -0.867321 0 0 0
-0.183483 -0.909638 -2.061062 0 0 0
-0.173920 -0.851568 -1.953645 7 14 6
-0.173841 -0.845851 -1.952752 9 16 8
-0.173602 -0.839366 -1.950066 9 16 8
-0.173719 -0.834610 -1.951387 10 17 9
-0.173495 -0.828216 -1.948871 12 19 11
-0.173793 -0.824310 -1.952215 12 19 11
-0.173761 -0.818832 -1.951854 13 20 12
-0.174041 -0.814819 -1.955005 14 21 13
-0.174042 -0.809486 -1.955009 14 21 13
-0.174226 -0.805006 -1.957084 14 19 12
-0.174327 -0.800127 -1.958214 13 18 11
-0.174489 -0.795521 -1.960030 14 19 12
-0.174386 -0.789708 -1.958877 14 19 13
-0.174448 -0.784642 -1.959574 18 23 17
-0.174424 -0.779186 -1.959300 18 23 17
-0.174982 -0.776315 -1.965567 18 23 17
-0.175077 -0.771372 -1.966641 15 22 15
-0.175542 -0.768039 -1.971860 15 20 14
-0.175501 -0.762483 -1.971405 17 22 16
-0.175982 -0.759176 -1.976801 19 24 18
-0.176002 -0.753867 -1.977024 22 27 21
-0.176425 -0.750274 -1.981785 23 28 24
-0.176425 -0.744865 -1.981781 23 28 22
-0.176733 -0.740749 -1.985243 22 27 23
-0.176658 -0.735021 -1.984401 18 23 17
-0.176892 -0.730569 -1.987021 19 24 18
-0.176919 -0.725260 -1.987331 18 25 18
-0.177262 -0.721234 -1.991186 20 25 21
-0.177351 -0.716159 -1.992184 22 27 23
-0.177490 -0.711280 -1.993744 20 25 21
-0.177351 -0.705288 -1.992186 20 25 21
-0.177376 -0.699951 -1.992467 21 26 20
-0.177399 -0.694601 -1.992716 19 24 18
-0.177684 -0.690274 -1.995928 21 26 22
-0.177684 -0.684827 -1.995924 22 27 23
-0.177910 -0.680245 -1.998462 25 30 26
-0.177915 -0.674810 -1.998518 25 30 26
-0.178267 -0.670680 -2.002467 27 32 28
-0.178350 -0.665526 -2.003401 28 33 29
-0.178736 -0.661490 -2.007743 27 33 29
-0.178724 -0.655967 -2.007607 25 31 27
-0.178985 -0.651437 -2.010532 23 29 27
-0.178993 -0.645982 -2.010631 24 28 27
-0.179365 -0.641827 -2.014809 24 28 27
-0.179502 -0.636813 -2.016342 26 30 29
-0.179783 -0.632302 -2.019505 31 37 35
-0.179819 -0.626915 -2.019903 33 39 37
-0.180050 -0.622203 -2.022504 37 43 41
-0.180062 -0.616725 -2.022638 39 45 41
-0.180328 -0.612108 -2.025621 39 45 41
-0.180366 -0.606709 -2.026049 39 45 41
-0.180793 -0.602602 -2.030841 40 46 44
-0.180942 -0.597553 -2.032516 42 48 46
-0.181147 -0.592678 -2.034820 40 46 44
-0.181188 -0.587258 -2.035278 41 47 47
-0.181454 -0.582559 -2.038268 43 49 49
